# 3D point list with one line of data per point:
#   POINT3D_ID, X, Y, Z, R, G, B, ERROR, TRACK[] as (IMAGE_ID, POINT2D_IDX)
# Number of points: 378, mean track length: 4.0852049596258215
13928 -0.6592501246036897 2.0649386575374611 6.9871810986747755 127 121 109 0.8541741454005024 47 343 48 249 46 173
19429 -5.848073546042909 2.416991628756394 2.2145636981742296 1 3 6 0.2339918569296518 40 4369 39 3785 38 2121 35 2134 37 2010 36 3017 34 3150 33 2115
13930 -3.6118859887892256 -1.6727981617097767 7.4478301017453443 141 38 57 0.91342426244016961 46 475 47 368
13933 0.77035430313211872 -1.5551791856736958 8.3984330923620778 247 238 243 0.99339220256358496 46 534 47 373 48 491 7 1030 49 610
18846 -6.3601707160270058 2.2386131175085948 2.0746299961967947 90 95 98 0.14399636470459309 41 4198 40 4023
13935 -0.5305286388849485 -1.0946960979009446 7.4681465588629292 254 254 252 0.69750317411190099 46 460 47 395 43 639
13937 1.8590246776523038 1.8868097727274638 8.0932896970472434 157 56 44 2.2200925233204454 46 405 47 398 48 637 49 548 50 182 54 173
15341 0.66362424963822064 -1.1648999619590228 8.2555374754393771 199 137 133 0.27485282287880225 48 905 49 1212 50 1463
13938 -2.6828028816132199 0.37367849348433979 9.5427855411303284 16 16 14 0.64103398835283076 46 706 47 416 45 597 43 473 42 352
14822 0.38688110789537206 0.9404793831056486 8.3867623349689033 252 241 231 0.47594063821709659 47 2316 48 1795 49 2160
15339 2.2418493243935527 -1.5030957441600794 8.6071247547712648 52 56 57 2.1097434529258994 3 4001 49 1184 50 993 54 1962
13944 1.3966518390773421 0.57282369958483748 9.0729858023765289 96 90 76 1.079543901597624 46 498 47 428 48 344 45 332 43 344
13953 1.0865735655867597 2.6750663832811323 6.3318205737541584 43 104 96 0.3309162844731478 46 395 47 476 48 462 49 517
14615 -3.0258802616512117 0.37666976068144598 8.8974378339501303 20 20 14 0.98905781809018667 46 3192 47 5306 48 4291
13958 -2.249761218540157 2.5974882334741873 6.3498051318514817 67 125 110 0.79701974576161128 46 715 47 503 48 438
13963 -2.1538091952051897 2.3380714283884676 7.0123902158355396 218 192 157 0.47692190564054021 46 350 47 525 48 538
13964 -0.66871112573462776 1.0968451729022091 6.4824543158955787 196 195 174 0.74875448697192259 46 411 47 533 45 356
15122 -1.7223827509288765 2.5810719097700492 6.4079039059952683 173 185 181 1.3142507739779927 11 3709 49 4004
19296 -5.7189164011594436 1.4817226226317093 5.2392154913188058 203 198 178 0.40143567734227603 40 3205 39 2939 38 3882 35 2435 37 2470 36 4096
13971 -2.2953769598387317 2.5790936533894921 6.4645992841270612 69 125 112 0.27754263123925355 46 515 47 598 43 907
14695 -2.4362278838421232 2.3477895928016079 5.9104813714248978 78 125 113 2.2837801063360312 47 486 48 390 45 494
13974 -2.03378460148706 2.2882667753343875 6.5732977657400067 192 181 163 0.5239345581309417 46 695 47 615 48 846
15208 1.8853193249688553 2.3873773941765375 6.9330267732368123 39 29 19 1.8932001586237366 47 4799 48 5862
13979 0.064371364435565806 0.37468735306711315 6.7518131481451737 12 15 12 0.30517675569896885 46 936 47 625
13980 0.27370417893489724 1.970590925062792 7.0516462373047579 226 230 231 0.49752648093411089 46 675 47 634 45 577 43 507
15202 0.37103716777937146 2.4622235740254261 6.442643872988981 34 61 61 1.0888576194953759 47 3302 48 5784
13981 0.24536984525295494 1.9045484321481909 7.152428135875077 6 125 178 1.3236881778849143 46 667 47 640 49 1071 50 1227
18799 -4.9253051079694545 3.5445478309946226 4.0659354601230513 236 219 187 2.8577382845747916 44 3685 40 3580 39 3465
13982 -1.6761571724669244 1.7313931851420792 6.8510085075591407 153 149 131 1.5265520234070398 46 342 47 642 45 363 43 374 44 546 14 422
13984 -1.1449817952688117 1.076900764862216 6.6043050429454588 125 119 105 0.1949000164201927 46 654 47 653 45 776 43 868
15154 2.0707871874211676 2.0066588580282567 7.8237794914319769 235 218 191 1.6755898334022401 47 2479 48 5258 54 5129
13997 -0.063848002061347844 -1.0768662743934221 7.6916206925951753 206 195 186 0.78314179569898512 46 1402 47 722 49 1233 43 1390 45 2761
14003 1.6384914499602941 -1.1803901966054136 8.7404653557570811 175 166 159 0.20447756241638482 46 832 47 789 48 792
14005 -0.53011419177298902 -1.5750109121998037 8.2293059345023281 104 106 110 1.3894590961244309 46 533 47 803
14599 -5.8572457604314589 1.225795561065411 9.775067708054582 177 148 104 0.44524108165833642 46 2544 47 5024 45 4727 43 4437 42 3108
14006 -2.4952601252253657 2.4626207204929997 5.773106754760243 51 53 52 1.2815675797901287 11 1304 46 770 47 807
14009 1.1539659012940315 -1.109334202116945 8.1392686988804073 174 29 48 0.29675070760231359 46 1393 47 834 48 1536 49 1358 50 1760
14011 -1.1096026118228766 -2.1719478064545319 7.6474817859258986 245 216 212 0.045685587404548686 46 785 47 854
15106 0.40587128667286515 2.4873303902439279 6.8422108892548694 169 145 105 0.047259246235088391 47 4836 48 4709 49 5080 50 3172
14013 -0.81447103295731971 -1.3874486637985195 7.8419583256637777 239 224 215 0.42375568575434003 7 1514 46 506 47 888 48 800 49 790 45 934 43 750
14020 -0.86760192464581798 -1.0802726085759777 7.6574059955852176 220 209 195 1.5007619309965219 46 508 47 932 45 954 43 771
14021 -2.1911699650979082 0.20590071802942067 9.4024503043840362 2 3 5 1.443122637450077 46 1080 47 986 45 1096 44 4023
14022 -8.7512839669625127 3.394047205446689 15.327158020616734 3 2 0 2.2788360808281016 46 898 47 990
15396 0.63452345620754336 -1.114707580403774 8.195583580147968 226 162 163 0.37709091801943501 48 1538 49 2040 50 2528
14679 1.8634923967389279 2.1112504412625199 7.1748295995457747 120 36 41 0.65841602022731915 47 344 48 295 49 354
14026 -2.6911051622094568 1.1674784718191784 9.6284549133920905 38 35 30 1.0164191289638072 46 606 47 1007 48 539 45 1117 43 1229
15400 0.63034992676863622 -1.7773151723131286 7.8560389127966372 181 177 175 0.75015643618578698 3 3992 46 4925 49 2135 50 3852
15192 -1.0486745960962409 2.4233433640163167 6.987105316731677 203 175 136 0.30285171359883967 47 4691 48 5657 49 5873
14027 -3.7233191629040268 0.25834156555602356 6.8720950679854464 98 114 113 0.48323070215330416 46 921 47 1028 45 735 43 823
14377 -2.8956953955755678 2.4947759630842392 6.786553266112235 206 180 144 0.4582246042788215 14 4625 47 3202 45 2277 42 3671 44 4042
14029 0.6434277970048019 1.0533393021497939 8.3685378191817001 90 89 84 0.52582368533845492 46 927 47 1037 48 1206
15395 2.615926443570924 -1.0725183726167664 8.4669920073953175 180 163 159 0.27449770885283847 48 2361 49 2034 50 2520
15186 -2.7849939015624852 2.3852228844620216 7.0128494886560429 226 211 185 0.15565054803059603 46 4677 48 5584 45 3833 43 4705
14035 -1.7533424967553206 2.28835687068152 6.9473605716330669 255 244 227 0.36342551127397865 46 1002 47 1113 48 1085 45 803 43 890 42 1490
14759 0.72636509645999225 1.7987687187489978 7.758437559113748 189 157 142 1.6484891855906938 46 1643 47 655 48 1163
14038 -2.9525896796715747 2.4769295203628374 6.8008712528497908 246 223 178 0.88598661973175097 46 740 47 1123 45 808 17 4487
15272 2.0320178822571893 1.9854551357087746 7.5396904497896715 56 56 52 0.99313633783287902 13 789 49 302
14043 -1.9079171228805485 2.376666752293501 6.5269158424553808 254 249 239 0.28999230116125574 46 749 47 1135 48 1103 45 1221 43 1028
14393 2.9495861849666798 1.7322521965656907 6.4300467938731387 24 25 29 1.744617297418944 13 4466 47 3237
14045 -2.0754488416460193 2.4044845828703973 6.3146961917312936 68 122 109 0.97736027819142779 46 1281 47 1141 48 1111 45 829 43 908
15411 0.31900419496562543 2.1110144596608102 7.7776726162390037 199 188 166 1.0735372981929514 48 2186 49 2387 50 5667 52 5564
14046 -3.2120010522520275 2.6244234663462827 6.3492414223196283 230 201 161 1.2949597702945084 46 3469 47 1147 45 1382 42 2126
19306 -5.8344315421623767 1.4941862025624717 2.1868478196769914 1 4 10 0.33342656474634597 40 3415 39 2968 38 4029 36 3317 34 3456 33 3380
14053 -3.338692509019145 -1.9971522064164535 8.3387928614590301 16 11 7 1.1185598297064898 46 2390 47 1175
14711 1.7262130500684496 0.58832317498367104 7.9464181000038661 32 21 20 1.5540371140836304 47 690 48 593
14054 0.59531436010970373 -1.9394989727462322 7.9129835368171797 209 198 194 2.0229614144425399 46 2447 48 2246 49 2147
15224 -0.92638238069286249 -1.3569728569636894 7.8357817841365778 151 148 132 1.9162675896367842 7 1435 47 818 6 3154 3 810 1 915 48 797 49 788 43 751
14059 -2.0419306897154712 2.4979478818846155 5.7596202075504586 71 76 72 0.080306168681947301 11 2675 47 1237
15218 -2.4935803889170276 -1.7419875065626433 8.2241594748978013 27 21 16 0.95073087513223897 46 795 47 730 48 828 6 6144 7 903
14066 0.89465622783303977 2.0167937132939446 7.488890326519865 220 81 84 0.55525581634549026 11 2087 46 1205 47 1291
14663 2.6156088088486928 0.66264542412963645 8.7074263167656412 154 131 100 0.44201234597281891 47 172 48 181 49 231
14070 1.7893680445108497 2.0927613906946485 7.4156725294108714 30 16 14 1.6872611564123894 47 1307 48 1424 49 2343
14075 -1.5426265421371241 2.1638399830169144 6.911992687176995 230 217 197 1.8526443948019009 46 1715 47 1327 48 2013 43 986 45 1253 42 801
15170 2.7844367390095726 2.0929000091790928 7.5268010816210307 150 75 70 0.48734483328001527 47 3091 48 5386 49 2595
14077 -2.0774979272673297 2.2397751392672354 6.809740905785592 170 153 134 0.15134349980538267 46 1238 47 1341 48 837
14078 -1.9281834516888403 2.3026962035091558 6.7729207134524394 231 215 189 1.4327722657370341 46 1245 47 1347 48 1239 43 1906 42 2079 44 2216
14080 0.8254403999905886 1.5819202887492836 7.8180214348655683 187 72 87 2.3048468780808107 46 1604 47 1353 48 1894
15037 1.1958932425857522 -1.2109834394061096 8.2455804348157038 255 179 182 0.36259251908422813 46 4148 48 3881 49 3857 50 4052
14082 1.9306738418364064 2.2479413239837434 6.9837397537328387 227 108 124 0.51652481489994018 46 737 47 1357 48 1234
14087 -2.5853334832541686 2.5071849964742476 6.7065141169131799 235 216 188 0.59238238833605594 46 1144 47 1370 48 1263 45 1426 14 4688 17 5310 43 1925 42 2092 44 2232 41 4394 40 4033
15035 1.0070069231149659 -1.2207611976374246 8.272662796239679 222 186 175 0.2041741752489229 46 4135 48 3871 49 3847 50 4039
14088 -1.5635395429684156 2.3712640452204652 6.667798022515556 248 237 219 0.55532051340835042 46 1256 47 1371 48 1252 45 1230 43 1021 44 1703
14090 0.74626763524639306 2.518544464431169 6.7823266341620378 213 195 173 0.2753862747486574 46 1271 47 1392 49 1155 45 1643 43 1971
14091 -2.0642932908284659 2.3817405182015317 6.407158724796246 246 250 253 0.25079350582429266 46 1273 47 1396 48 1286 45 1216 43 1952 42 1502
14095 -0.72658827242414781 0.40502341006166642 6.5761881263073372 168 156 130 0.51060746866646256 46 1435 47 1408 48 1363 43 1402
14096 -0.35816262364728191 0.35820823152302472 6.7269842395685986 85 101 101 0.23557296720950793 46 1128 47 1418 48 1341
14097 -0.3549152641570133 0.33556700002548168 6.7618572419165224 66 75 74 0.42616377673222633 3 5583 46 1126 47 1422 48 1292 6 7288 49 1702 45 1358 43 1194
14989 0.30170500874089101 0.094445300042123842 8.783304094236092 104 103 101 0.15382192812882489 49 5358 43 1676
14098 -0.71915995081090611 0.33828110483181434 6.7323077622954219 55 65 64 0.28540800906684383 46 1125 47 1423 48 1305 49 1701 45 1082 43 1197
14099 -1.273616686686216 0.37491617323898085 6.7380414910727513 6 18 18 0.75477052621166052 46 1571 47 1424 48 1336 45 1595 43 1745 42 4559
14470 0.081454569532075305 -0.16475786706731071 5.311830008372624 64 68 69 0.25877868060668535 46 2739 47 3835
14103 1.4116395122338574 1.0788099827124618 8.4748887984822652 159 135 99 1.1629638969489018 46 928 47 1440 48 1808 45 1139 43 1201
14987 2.0259562146109698 0.0017713749652019033 8.766124685011059 36 40 41 0.91555520096929399 46 3181 48 3448 49 5841
14104 1.07464331281349 1.3081945817525242 9.281457731665931 24 20 11 0.67277017813776274 10 2207 47 1454 11 2291
14109 1.896911541393216 -0.58663983452761914 8.0781659247422368 224 225 230 0.71304527644227056 46 1077 47 1502
14111 2.3985767783871497 -1.0322903099910996 7.4886269653429052 236 236 243 1.7945066011508104 10 1616 47 1529 11 1720
14112 1.2235142962458962 -1.0014895542955238 8.0250384782629691 182 19 51 0.62229359649120664 46 1006 47 1550 48 1508 49 1463 50 1750
14941 -2.3249226926865605 2.5594747566484704 6.5095955544948172 134 191 182 0.24063326974467406 46 3439 48 2954 45 4162 43 4995 42 4769 44 3951
14114 1.0919793760701664 -1.0439116692432304 8.0654558479411751 225 180 177 0.29038730481301217 46 847 47 1560 48 1521 49 1369 50 1755
15809 -3.3719766038490246 0.72994326745783744 8.6842672564952945 181 157 131 1.4377301020175672 47 429 45 847 43 1230
14422 -0.054346474305163872 9.2116299125460053 10.536607054726877 100 185 178 2.1752964664424876 13 4133 47 3435
14122 -2.418006416049173 -1.545803000445493 7.9681243679688309 183 153 83 0.16146281317419986 46 1358 47 1625
14127 1.9597690401749688 -1.4940216371337915 8.3285524553733357 13 14 17 0.071577018660926334 47 1663 50 3923
15021 0.90300211771436933 -1.3710800583289964 8.4555755291357215 227 223 223 0.28844252476718124 47 2828 48 3773 49 2777 50 3969
14130 -4.6961452560185872 1.9763370484475755 6.9985813522579159 141 126 105 0.21382954857804887 46 4526 47 1677
14812 1.6579989972037341 -0.96868763888432452 8.156037670065956 247 241 241 1.0895247146726168 47 1549 48 1684 49 5608 50 2551
14135 0.9806595844418039 2.1234842547706272 7.5772026408818611 210 181 170 0.079751353869380384 47 1703 50 1223
15825 -0.1910962326636764 -1.3752842293275005 8.1645343169861295 211 201 195 0.3611749369254757 46 1368 45 1013 43 1323
14502 0.66721533577577796 -1.2080425053464263 8.296756094589739 254 175 182 0.28342387421988013 46 4133 47 4204 48 3868 49 3846 50 4049
14136 0.12892816771841334 1.7652534278576599 7.0618383335488311 88 77 57 1.3040943244554657 46 2780 47 1707
15834 -1.1397203366135429 -0.66609458096497554 8.1457964461486885 209 212 211 0.41154263391159357 14 1396 45 1068 43 977 42 1141 44 1177
15019 -0.51132993098558244 -1.4668712577097414 8.0044501815454669 135 136 138 0.78065202940787981 3 5455 48 3759
14138 -0.18199141547576381 1.6710860804613237 6.9023602050325561 213 213 203 0.40058518536727539 46 1684 47 1710 48 1979 49 2345 45 1480 43 1860 50 1441 52 1353
14144 -1.8047057132000774 2.2766809318804344 6.9062326137440309 160 140 109 0.14990425738514737 46 4705 47 1744 48 5611 49 4961 45 3915 43 4766
15101 -0.91077508335663115 0.2976693169064758 6.7110584026799884 124 140 139 1.2598904045833121 47 3692 48 4663 49 4272
14146 -1.8950302028972164 2.2781289504291879 6.8714275367269053 247 230 207 0.41802046439839952 46 2857 47 1748 48 2033 45 2266 42 2062 44 2207
14582 0.65928030778805746 2.5041448722656812 6.7574719698006414 182 179 165 1.0138464042314039 46 4906 47 4886 49 2781 48 2927 45 4228 43 3292 50 4932 51 1802
14151 -1.577653818286733 2.3087891831157075 6.8135314026096356 157 142 121 0.46277527166059379 46 1735 47 1758 48 2045 49 2902 45 2279 43 4822
15099 -30.48685570617641 23.913246856304472 41.808462684234854 112 128 128 2.7900935991789462 13 2302 48 4634
14154 0.86972746619553065 2.4151658481170553 6.9760015293754121 216 200 184 0.37820729263605912 46 1761 47 1776 48 1240 45 1407 43 1943
14534 0.66439762267166536 2.0412346419392779 6.9573176162729098 178 185 195 0.27800433938466129 46 5052 47 4609 48 5539 43 4802
14167 -1.5344903715666809 2.3752712719280495 6.5704516107406885 251 243 230 0.2933428487294602 46 2918 47 1803 45 1409 43 4964
19091 -6.0896984686111599 2.2523141190781617 2.1243313253196701 7 12 16 0.67698833691437021 40 2122 39 1374 35 1496 37 1250
14176 -2.9602855498216472 2.6324842357077816 6.3397375067576549 65 125 113 1.4672359330298015 11 3732 17 5307 14 4730
15005 -2.415022655059003 -1.651416427066752 8.3102076335028414 232 197 187 2.0689627455395518 46 3908 47 4053 48 3673 45 3030 46 3899
14178 -2.1696531082821107 2.3792637657817508 5.8356769766884664 92 94 95 0.19645296245449376 46 2981 47 1871 45 4360 43 2835
14183 -1.8212588869868072 2.2830562719630452 6.8160176904800922 179 160 136 0.28730588769309584 46 2867 47 1909 45 2269 43 1902 42 3663
15003 8.0527559886396478 -0.31859954723444295 21.332481364903217 74 79 83 0.39431050963548375 46 3865 48 3640
14184 -1.941712568742902 2.36890059604203 6.4748408681087746 218 212 200 0.14638286678357187 46 1788 47 1916 48 2115 45 2338 43 2769
14186 -4.06505704539682 2.7579884877839471 6.1299395000348653 232 202 164 0.31629980339821906 46 2968 47 1918 45 2373 43 2812 42 3842
14193 0.69085116754587428 -1.8630966741210395 7.8984349443854924 167 165 167 0.55004058931205579 46 2192 47 1990 49 1293 50 1836
14194 -0.15838292654007236 -1.7997587491857887 7.9988391987698675 254 254 254 0.866742874854324 46 3892 47 1994 43 3866
14566 0.92895939404547301 2.4061096620670948 6.9978055742305818 212 199 181 0.60434960275434291 46 4805 47 4763 48 3765 49 2723 50 3139
14199 -0.41577996758411262 -1.6011569441518814 7.9317307447926719 164 160 159 0.54687167909912071 46 3989 47 2021 48 2274 45 2663 43 3991
15083 -1.1945157878952233 2.336897897740486 6.7037998099173919 248 234 221 1.7891631659667588 46 4835 48 4417 45 4090
14200 0.81789514167859445 -1.4990883958948347 8.3405579132172818 99 94 93 0.98980390802384077 46 2995 47 2028 48 2281 49 2116
14359 -1.8588429390933952 2.2810823805326854 6.9121217038442504 246 228 199 0.35381137779579275 46 4702 47 3146 48 2816 45 3908 43 4760
14214 0.93387026766324688 -1.0665433712126309 8.1119536647657746 224 165 183 0.23867730005171256 46 2050 47 2109 48 2369 49 2020 50 2539
14872 -0.25886067274844193 -1.3088111657677519 8.0060703021965569 185 175 166 0.42552021976680326 46 2010 48 2314 49 1936 45 2709 43 1579
14219 1.2554021216594915 -1.0201258555731336 8.0414416455591269 239 147 157 0.36981879932335582 46 2064 47 2129 48 2388 50 2548
14221 -0.2208934615721109 -0.76438725623373494 7.7888364426775851 183 178 180 0.61138489311326816 46 1045 47 2183 45 696 43 790
19040 -5.775866792176866 1.1641323273519248 1.4102595049208366 2 9 19 1.7033575680051178 14 5068 39 911 17 4792
14227 -1.7093518455816865 0.87743265659865266 9.9657585122031573 35 36 36 1.3021015032249055 46 1453 47 2234 45 1111 43 1680
14230 2.1917957142676787 0.34100672727865156 8.8907000552326831 108 108 110 2.5814596053578742 46 3220 47 2241 48 1727
14234 2.5409542601041739 0.79957108429384416 8.7858962229388577 3 2 0 0.78512258695395831 46 2586 47 2275 48 1663
14946 0.51313351129615359 2.6668651245040031 6.3834383056247379 116 189 178 1.1726434018140799 46 2970 47 3359 48 2994 45 2400 43 2841
14237 -3.6879678432181873 0.26447390098565787 6.9289935189187117 43 60 60 0.72406125178489511 46 1503 47 2307 45 1973 43 2409 42 2662
14245 -0.083757758691315493 0.39610907559659247 6.6767952849830543 197 186 164 0.91842796051163034 3 2194 47 2390 48 5341 49 4342
14343 -0.17923985682652682 1.5304721198252862 6.8327779449452706 215 215 205 0.40923064043229918 46 4537 47 3074 48 5365 45 2202 43 2647
14262 -3.640717171138129 0.36408769593658286 6.6763755908085773 156 157 139 1.2736472631654654 46 2648 47 2532 45 4510 43 3106 44 3624
14267 2.5233353813535926 1.202388891598253 8.7473451878702555 137 130 115 1.4721301792987984 46 2637 47 2578 48 4604 49 5803
14850 -1.7792627491668709 2.399373426001679 6.4853550935940714 231 223 204 0.30649777138265716 47 1814 48 2123 45 2349 46 1792 43 2784
14269 -4.2977862102911839 0.20030922911214927 9.4846197047579484 43 36 28 3.1517739982932396 46 2496 47 2581
14270 -1.2562600132492312 0.28987692236609575 9.463571743366554 24 28 31 0.077508948546681208 3 4574 47 2606
14277 -1.2488144045955709 0.80025298145934509 9.6998944884561098 0 2 1 0.45158119058038038 46 3213 47 2634 48 4325 49 3312
14278 -2.5715051187571119 0.8587854926054711 9.5011577799292279 11 11 9 0.11238685571897507 46 2537 47 2640 48 3481
15652 0.31115934135002771 2.6226683319081467 6.4091705055262143 83 141 124 0.76636929140592203 11 935 49 528 50 493
14936 0.013221961942765153 2.3390857799162768 6.6271002048203895 52 52 44 0.30498885602551656 47 3250 48 2920
14283 -0.28040889422326698 0.39823307344061032 6.6078158724327212 200 190 163 0.35420275341201213 46 2683 47 2677 48 2184 49 2470 45 2102
14633 0.33353567640584458 0.47053237737755194 8.9317966338523345 92 91 87 0.98555204818543385 46 3218 45 4965 50 4557 52 3515
14285 -0.54772098349260745 -2.1422123310995258 8.2187428858973561 64 91 61 0.74938230906958891 46 3728 47 2687 48 3525
15651 -0.67185368377824195 -1.4371809942942027 7.8879537365826948 237 233 225 2.0148482452510992 1 171 49 102 6 718
14930 -2.9705064262628662 2.4672410852883333 6.8047098897736644 255 253 227 0.3050742375573513 47 4724 48 2865 43 2711
14291 0.054170692256793863 -1.8213810391439391 8.1324363130395838 230 221 212 1.2324768553199779 46 3884 47 2750 45 3062 43 3842
14294 -0.42188983542192904 -0.036738284869313888 6.1241258505127734 104 123 121 1.0630678331777454 46 3709 47 2770
15668 -3.3431793748406489 0.35562485621500289 6.8675432915245844 104 128 132 1.3257141148931808 46 13 45 19 43 21
14503 1.2556119670990131 -1.2375151478124269 8.2645552260077508 252 116 136 0.33401372470834934 46 4132 47 4206 48 3865 50 4032
15016 -2.4525226432147571 -1.4605094492726201 8.0193040857250875 225 206 110 2.0009014577204138 47 4115 48 3735 43 3974
14299 -3.7869265461057671 -1.5241046226283463 7.6338940335606029 36 30 105 1.1073702076162149 46 4001 47 2802
14649 0.60145892621972219 2.0328460074718446 7.221235626277986 221 225 220 1.6024921850778973 47 104 48 66
14301 -2.8649635415056465 -1.4312900335361032 8.1093840387802132 213 188 104 1.3931157702196899 46 4012 47 2809 43 3973
15667 -3.8447267005104604 0.48542597583117791 6.1761762716468036 235 230 208 1.3342724497418608 46 18 45 18 43 16
15010 -2.1823038855680941 -1.59229487705781 8.1570285214469944 142 71 67 0.2321400352511791 46 2243 48 3693 45 2631 43 3902
14309 -0.83014646716306917 -1.2947854333099493 7.7196235275536171 143 157 146 0.38780328681979997 46 2024 47 2859 49 3094
14310 -0.67674291576027867 -1.2905466292299883 7.7370438306410501 152 177 171 0.40614385644247553 46 2431 47 2863 48 3234 49 3863 45 2718 43 2036
14968 -0.26120262458181887 -1.2280744115528532 7.9047251252862756 167 154 146 0.599514880177625 46 4159 47 2082 48 3247 45 3348
14315 -0.10578693686135185 -1.1937388774802347 7.6706449342830956 255 247 245 0.24191672825006133 46 2401 47 2900 45 2740 43 2240
14319 1.2127593303991004 -1.0517908392955615 8.0694962671091872 252 133 148 0.15294187822476218 46 2054 47 2923 48 3303 49 3158 50 3595
14407 -1.8341664121713965 2.6534950127120274 6.4516416596244452 83 149 139 1.4800378454813206 46 2955 47 3301 43 3305
14326 0.80265242868072484 -0.91548582842720794 7.9600899083671353 204 202 203 0.45264427092656229 46 2090 47 2968 49 1990 50 2566
14331 1.3166338754583289 1.8382793652469496 8.0042277020772907 207 82 85 0.16344223013818654 46 2726 48 1617
14914 3.1559606854956233 2.1006363847415468 7.80413830208294 180 168 154 0.60193444870522361 47 3064 48 2702 50 5653 49 4647
14333 -1.4910766532558903 0.84340023985333967 6.3991382703238573 138 141 133 0.56722623621872759 46 4401 47 3017 43 4088 45 3622
14334 2.1973698072291041 1.9773501828864573 8.0398945707865987 233 225 206 0.38514945954769653 46 4422 47 3019 48 5194 49 2526 50 5569 54 5055
14336 1.0890952825585032 1.6317150754406857 7.426138766520193 202 192 181 0.32417130234420921 46 4439 48 2681
15280 0.21656111673938108 -1.5332519524022796 8.006530951699764 206 197 192 1.53006871178538 48 493 49 400
14337 1.741206116829193 2.018601885028612 7.9413919953583587 239 224 203 0.34431349565163127 46 2747 47 3030 48 2678 49 2358
16306 -0.067879383380966565 0.83685331939277052 9.2874458265317834 13 12 8 1.1767961303243748 46 3245 45 4639 43 2986
14339 -1.3259088931724381 1.4382160591325335 6.7637514306537767 146 118 104 1.1873576302042621 47 3057 48 2716 45 2182 43 1832 42 1403
14340 1.4018512208079319 1.9540514492937313 7.5323832818344272 177 149 120 0.49891397580309044 46 2764 47 3061 48 1961
15284 3.4142638359404232 1.1947406371017075 9.0278849421308287 176 162 132 0.41287671146348109 48 550 49 439 50 594 54 523
14341 0.32763736255653536 2.0272413224177672 7.4707109818109423 106 96 85 1.3221512551041101 46 4530 47 3066 48 5544
14342 2.5669565115917439 2.1088389723555525 7.6963087077611769 210 201 185 0.17153998303609788 46 4533 47 3073 48 5337 49 2570 50 5680 54 2999
15288 0.78538231064768982 -0.35280314630481951 8.7499667088897422 216 216 218 1.7308121503687692 48 337 49 483
14345 0.50401849101113427 1.9202061770635483 7.2270633517333343 20 116 177 0.4995568102725973 46 2788 47 3078 48 2732 49 2602 45 2225 43 2670 50 3040 55 5471 52 5523 53 5440
14346 -2.235727529105457 1.6522763002334064 6.7022679988948797 228 221 203 0.285536054904099 46 1686 47 3085 45 1497 43 1845
16314 0.60826955415670803 0.41943238427337132 9.1619100517480447 93 90 84 1.0787363938702914 48 4302 45 4707 54 6017
14347 0.40478583908294841 1.9393516148597469 7.1778971562590188 29 119 177 0.30995757941797641 46 4574 47 3090 48 2739 49 2615 43 4674
15807 -4.2844318718789323 1.7037799434964966 5.8195888042210315 27 25 21 0.36805234086493605 46 320 45 809 43 960
14348 0.33194827046640696 1.9978882963572522 7.0664490600208154 164 167 161 1.195729763855411 46 2812 48 5460 50 1236
14349 0.26004247468811398 1.9884264302168133 7.0874722707199638 231 253 255 1.521817704554786 46 1700 47 3106 48 2759 49 4819 50 5852
15801 -4.6058759931312787 0.98873255351258293 6.2039197732056923 255 255 251 0.45203440242001475 46 1433 45 762 43 1054
14350 -1.3987685210071394 2.2040448717856713 7.0639249410820009 226 214 195 0.38842692844624493 46 2821 47 3113 48 2779 49 4880
14353 -0.54917896808982836 2.3430338777801296 7.1781744220487109 143 127 104 0.35879144711282029 46 4672 47 3129 48 2792 49 2669
16258 -0.52227510524182708 2.553420600549543 6.5881865551546932 103 192 186 0.57767630625777344 47 3274 45 4241 43 3300 17 3910 42 3908
14355 -0.49816998800608681 2.3626770459484296 7.1348321097822689 220 199 172 0.26215977268875862 46 4684 47 3137 48 5568 49 4929 45 3944 43 4782
15751 -0.45075289816721348 1.5786746787663994 6.8739388492487024 185 190 184 0.15111108432610512 46 341 45 529 43 542
14356 -1.7941862682585759 2.2807755957713041 6.9517871870877936 249 230 205 0.28835079558713156 46 4683 47 3138 48 2018 45 2259 43 2701
15236 -0.078347119249825986 -2.2547466251325137 7.4378076320098545 39 40 42 0.86199265938153735 13 2845 48 5003
14357 -0.81349925450371219 2.375914428290042 7.0908847218213955 202 179 144 0.33886620632835307 46 4697 47 3141 48 5590 49 4939 45 3948 43 4790 42 3708
15745 -1.7765491704823919 2.3619942578812569 6.722169474820598 222 210 196 0.29684815641815282 46 694 45 508 43 523 42 815 44 846
14358 -2.0130679606089044 2.3664122880812521 6.9881378632736277 177 158 128 0.21381052719049187 46 2851 47 3143 45 3901 43 4753
15240 1.464509009682716 1.0791819839873016 8.1920968610524518 189 178 150 1.705254138834249 49 26 50 39 54 93
14361 0.54518264599807353 2.065740266409819 6.8780120554559216 205 203 203 0.55304502436077563 46 5097 47 3152 49 4932 45 3993
16266 -3.6771894983719857 2.761301487659618 6.1211914626923312 210 180 133 0.054722304544832089 47 5086 45 4291 43 3350
14363 1.7985760635264272 2.2335726884653071 7.1025595879789085 213 155 143 0.56233151092819544 46 4718 47 3157 48 2806 49 2308
15759 -4.8088606166540826 0.72090131467436647 6.2706329647046815 91 92 94 0.56382396452878958 46 638 45 559 43 841
14364 -3.710406853081865 2.4618397237349572 6.8739346077808401 248 223 185 0.35532921872329148 46 2860 47 3159 45 2245 43 4736 42 3552 44 4784
15244 0.84027184832179258 1.1495987653125614 8.9025812722720801 42 41 37 1.5787062508922198 3 115 4 167 49 45 54 25 52 41 51 55 55 73 53 67 56 55
14365 -0.37165729511736301 2.389397432628348 7.0503343723695098 227 205 181 0.29586230616760922 46 3032 47 3163 48 3073 49 2296
15753 -0.70674956207143069 0.64675950398036774 6.4043297122984324 254 254 247 0.17607842490999767 46 960 45 544 43 557
14366 -1.5234503790464555 2.2989619900415121 6.8468439155433511 236 222 196 0.60201803015710742 46 4749 47 3167 48 2835
14368 0.79357126496404595 2.23274495342454 6.9686911081030072 181 173 158 1.514699224128041 46 4735 47 3171 45 4259
14373 -1.6177163781059252 2.3392228037760705 6.7714477457409767 180 165 142 0.22246614817108304 46 2885 47 3194 48 2069 45 2292 43 2729 42 3717
16071 -0.60690176825224229 -1.5933936908687474 8.4461445649356488 102 105 112 1.057550833198198 46 1338 45 2656
15188 -2.9319228993877298 2.4086200242562725 6.9757594336873829 255 247 211 0.22790064815948541 47 4624 48 5615 42 3569 44 4780
14374 0.85685461756798142 2.3964340085934688 7.0192219994519531 205 193 177 0.052119783439854267 46 2883 47 3195 43 2765
16064 -2.0095738735758126 -1.6288783898230617 8.1380736688637647 140 58 54 0.17272652466137975 46 3931 45 2627 43 2211
15697 -2.3018649035453094 2.3652237603962725 6.9962879411722767 230 207 173 0.085755212759519028 17 776 45 220 43 305
14378 -2.0289337832836538 2.2646647187391031 6.6381762568105218 231 218 204 0.25118156096700595 46 4814 47 3203 48 4351 45 2287 43 2726 42 3694
15711 -4.4198796732097323 -1.7040502662469041 7.6529513449451674 45 106 100 0.84020271201141983 46 261 45 307 43 316
14380 -2.0461565840529801 2.2819183691726548 6.6277645642040204 180 167 151 0.35854585860621718 46 4820 47 3207 48 2878 45 4018 43 4867
14381 -1.8323133214072245 2.3634162978677242 6.692808137633687 222 207 188 0.2008076953396162 17 4678 46 2897 47 3211 48 2888 45 4973 43 4891 42 2097
16079 -1.2888853744298741 -0.57855218702651467 8.9012022481168565 35 36 40 2.2683156710605332 17 1853 45 2772 10 4814 11 5227 43 1619
15196 -2.6704458663263098 -1.2495897136372474 8.0707861662021259 211 194 106 1.7730156785606039 48 5694 43 4051 42 2931
15705 -5.28645151158491 0.59036786050666967 7.0040861995604704 23 21 21 0.98918088712800789 46 195 45 260 43 350 42 365
14382 1.0016521898771149 2.4320500502591154 6.9735294781614829 220 207 187 0.29801563559681488 46 2898 47 3212 45 2343 43 2777 50 3146
14383 -2.0028627115561148 2.3223310442446459 6.631795060069309 155 143 121 0.22990364936386348 46 4828 47 3213 48 2895 45 4044 43 2745
15264 -4.2487901657879539e-05 0.53983147220530514 9.0862722545750945 115 111 99 1.506120125548196 47 136 49 235 50 202 52 401
14385 -1.3769616999182737 2.3680101800047733 6.7183135811128558 127 116 98 0.19355691593187721 46 2900 47 3216 48 2885 45 4081 43 4914 42 4767
14389 -3.4232000645574767 2.5363692394048574 6.6779085596533934 224 201 160 0.24567085136942621 46 4158 47 3224 45 2542 43 4859 44 4318
16087 -0.25618566217287753 -0.59329499879798253 8.0246101943208696 175 90 83 0.35672997054778893 46 2489 45 2811 43 2316
15268 -0.889801242866889 -1.5892177446441111 7.8600626623780725 54 59 62 0.14274159725048047 3 507 49 264
14390 -1.9446368343813536 2.3357561656790145 6.5909714934068973 165 152 132 0.21905390662206151 46 2909 47 3229 48 2910 45 2319 43 4916
16080 -5.5502069211027409 -0.23652048965387792 8.6489010066889342 206 203 210 0.18180797423462014 11 3874 46 3100 45 2777 43 4265 42 3133 44 3533
15777 -0.54098514721393731 -1.6404320898361282 8.2558602472946365 116 116 124 0.33677332863872628 46 1347 45 646 43 665
16298 -3.6942661541214328 0.24878909221215273 6.8511502673547833 105 120 117 0.86375210913548717 46 2615 45 4559 43 2414
14395 -0.71798811289703945 2.6239692183735759 6.8943185468626407 196 176 146 2.2824003333768057 46 2915 48 5610 49 2268 42 3833
15791 -4.7757541705017541 0.18532445850582299 6.8740104572537639 241 212 177 0.28132634340434004 46 866 45 724 43 816
14396 -0.68332556332327576 2.5178958790339681 6.7389888642260898 208 201 185 0.17596097879283287 46 4873 47 3245 48 4742 49 2773 43 4991 45 4158
14397 -2.4859127283056615 2.5448524583481418 6.5625665543460494 104 177 166 0.3999935539496553 11 5109 17 4647 47 3255 14 4767 44 3927
14398 0.25057386934329529 2.1457006286015541 6.4252378712664804 163 155 142 2.1603118285876501 46 5100 47 3256 45 2367 43 2799
16088 -6.1699371792800752 0.74609561452607276 9.706255563385076 22 13 1 0.19889027072688631 46 3173 45 2817 43 4390 42 3790
15785 0.040326658958734336 -0.82251958340519404 7.7728307222197 253 253 251 0.26297208745133677 46 583 45 692 43 698
14400 -2.3969811969646746 2.5401755444287044 6.5461139640563317 63 131 116 0.22584182552188517 46 2935 47 3259 48 2946 45 2340 43 2771
15344 1.7348638932202907 -0.93567889698455198 7.9329577634398145 216 63 67 1.0636205866482309 48 1495 49 1242 50 1049
14401 -3.7956118789939426 2.6096489636288567 6.4823111861681024 255 239 205 0.2686243288880466 13 4614 46 3427 47 3261 45 4098 43 4944 42 3720 44 3903
14403 0.30650464466114735 2.305262321206361 6.5199396286689595 26 39 40 1.7931304575699225 47 3269 48 2942 45 1751 43 1047
15863 -0.58404247774099705 0.81140653177049649 6.5317826997839665 131 133 128 0.39374486276044868 46 848 45 1310 43 1115
14404 -2.0513490172849549 2.3690792707128852 6.3231931697988548 216 228 226 1.6145372382554886 17 2516 46 2949 47 3273 14 2643 48 4845 45 4300
15348 2.5395860930340031 -1.046861195699353 8.4174697513480847 125 77 81 0.143319799869849 48 1532 49 1360 50 1759
14405 0.27815109676308414 2.4930799565886739 6.5634627734088777 9 63 65 0.40696034713187124 47 3280 43 916
15857 -0.78626392352674523 1.7044440614350482 6.9098403877983294 114 110 101 0.51302587477878969 46 2786 45 1281 43 1322 42 1380
14406 0.049443300501516976 2.5703391995376426 6.5390061319264996 89 187 184 0.39495568854856017 11 3694 47 3293 48 4861 45 4294
15352 6.9151430759000885 0.73953770835233545 10.414993878700894 196 200 201 0.43153358048250767 3 4437 49 1457
14409 -4.0776172583048789 2.7295845603196804 6.2237269336704735 188 159 129 0.1409272583001635 46 3510 47 3321 45 4219 43 3291
15871 -4.6923208946756088 0.74292118974390309 6.184171576586702 115 115 115 0.23498498894172112 46 1162 45 1341 43 1152
14412 -3.5329228176095775 2.755666146120356 6.140452762406154 205 176 136 0.32145115352821518 46 3534 47 3367 45 4292 43 3353
15865 -1.586379894117387 0.67838699868744257 6.3875588096165217 254 254 249 0.34335467344498971 14 2401 46 1611 45 1328 17 3929 43 1190 42 1665 44 1839
14414 -2.1811013080588149 2.362946292029489 5.8614506176242438 58 61 66 0.32423230681455789 46 3551 47 3390 45 4347 43 3409
15296 3.8398408612557535 1.7988713612026341 7.1863562923234312 211 213 208 1.1067217274343 48 612 49 564 50 310
15654 -0.25977650157306459 -1.4279158972860897 8.3888711047444158 156 155 153 2.8863078534900883 1 4045 3 4083 49 1312
14417 -4.198942814181355 2.82884059454523 5.982541559063848 175 148 119 0.19250580805068704 46 3564 47 3408 43 3389
16322 0.33192456272110404 -0.673185651506225 7.9066534023807344 24 24 32 0.51197392590439972 46 3127 45 4802 43 3787
14419 -4.0812968821325857 2.8238642489097288 5.9786302867625016 224 198 177 0.23772776041132199 46 2983 47 3412 45 4329 43 2823
15141 1.9639587604042148 1.3777872855353515 7.6558076006552946 204 187 159 0.73284193343202952 48 5101 54 2891
15815 -4.4796053973397463 -1.5186600037364506 7.4906797036872534 25 22 25 1.2082544893791467 46 504 45 922 43 740 44 1142
14420 0.67291038664756542 2.4332549931515497 6.039679103039723 28 36 41 0.40758141281603083 46 3570 47 3419 45 4362
15300 1.7521663485312853 1.7928759067628972 8.3845444319432723 149 62 55 0.73258779360894 48 654 49 625 50 714 54 701
14421 0.68643871309347027 2.4318013892534949 5.9849974967967938 23 37 40 0.27104464664568406 46 2984 47 3429
15304 4.4747637981590351 0.79592726860162699 8.5994398428044594 36 38 35 0.34677266546641117 48 546 49 662 50 1131
15662 0.37580612254537671 2.7143938697382577 6.2540105868432683 133 204 190 0.18969859587117469 48 4962 49 4140
14425 -0.26750749096071585 1.5388085178822575 6.840381712539398 223 221 208 0.56715668996525659 46 2777 47 3447 48 2729 49 2590 45 1488 43 1852 51 1959 55 2058
15149 3.7395017973590607 1.9683202752984448 8.0012473453599195 180 169 175 0.10332683566755088 47 824 49 1624
14428 1.2933107005794462 -1.2222710806612569 8.2523297334488888 250 133 145 0.30223897563856933 46 2414 47 3455 48 3233 49 3090 50 3528
15817 -5.2722077459290215 -1.6048035561607021 7.8293558648448647 40 31 26 1.8060793283095127 14 3533 17 3292 45 976
14430 0.065999434812250415 2.3880710766394988 7.0317699577246042 216 195 166 0.5110943851046903 46 2876 47 3460 45 2301 43 1922
17811 -5.6850072491200603 2.0427453274885967 5.4878463014473251 185 182 177 1.0403946921996734 14 1549 17 2331 44 4410 41 2938 40 1431 39 958 38 1177 37 663 35 761 36 792 34 838 32 953 31 906 13 2506
14432 -1.7623785015755522 2.381432716126207 6.6707294857355572 166 154 130 0.25953357205649763 46 4838 47 3470 48 2904 49 5079 45 2547 43 2760 42 3738
15248 0.84606176074384187 1.9182690751603728 7.2577422505976461 172 167 161 2.2078297759927072 48 67 49 72 50 93
14433 1.9337583464106975 2.3358500575133205 6.9073878413512499 53 52 56 0.48522713892763575 46 2907 47 3471 48 4241
16274 -0.67837658182256722 0.35972063504165952 6.6504836840885959 56 77 82 0.15215002777056588 46 3739 45 4440 43 3203
14435 -2.2624726995485367 2.5371291522780699 6.5789939014928338 109 191 181 0.16072919030820326 46 4896 47 3482 48 4790 43 4969
15767 -1.2233706660229349 0.35757371510463243 9.5053174199247596 27 29 28 1.0161658681966943 46 447 45 593 43 472 42 355
15252 2.4584346422189158 -1.2106467043375146 8.1045261934165715 27 28 32 2.2805004382925635 49 109 50 67 54 36
14437 2.8187097641319294 1.837672878298261 8.0162690635570257 199 182 166 0.36806705402539397 46 2737 47 3489
15256 3.7768519278912516 1.1225684410057895 9.0578024074067045 40 42 39 2.1838250966446928 49 123 50 118 52 134 54 63 51 171 56 105
14441 -1.9827641153123103 2.3620612443210072 6.4555879161290504 255 250 245 0.28744779548086796 46 4889 47 3507 48 2119 45 2341 43 2772
17893 -3.3253593464706896 2.9784584185883629 5.5608802789960281 223 201 166 1.0969008902034689 17 3675 13 4823 14 4994 44 4275 43 2891 45 2452 42 4122 32 5773
14442 1.7791093309534856 2.555074296862156 6.0673335278245126 41 94 87 1.0449612264157329 11 3791 47 3517
16282 -0.55161764320991169 0.2998070672424884 6.8055512184221154 113 122 127 0.091726226309419734 46 2655 45 4469 43 3167
14443 -5.6790928051563476 1.3408659449143061 9.6178282158959725 161 132 88 0.15683636910325952 46 3256 47 3518
15775 0.026795120661648738 -1.0836478370058742 7.7477332569263409 199 185 177 0.24917662230123297 46 566 45 620 43 640
14444 0.50465788461734895 0.94055696645582221 9.2853860145455638 43 43 41 1.2258692314154289 46 3277 48 3422
15260 0.34543003396468952 2.4697997283401376 6.6326387368612902 43 78 72 1.2074051193711413 48 93 49 153 50 175 52 217 51 368
14445 -0.98031810457785817 2.6334362359588677 12.084281181171884 94 111 107 0.67711882557747283 46 441 47 3556
15769 -6.1466958365753497 0.80631904359763373 9.7593021528167476 14 11 5 0.21329579636799223 46 600 45 595 43 612
14446 1.2772342341380454 1.431215247391235 9.3323366845040834 43 42 36 0.91871440128609483 47 3621 49 4943
18334 -5.5476081206214474 3.6251151815321778 3.0476800298395244 245 251 251 1.4176714145947122 41 73 40 21
14447 1.4123488361337757 1.3391516436812554 9.1159835027959915 23 11 4 0.29074181087966311 46 3372 47 3626 45 2515
15328 1.8230287890900638 1.8396886665110579 8.2100112542770987 172 71 55 1.9002468521032294 48 1034 49 1030
14449 -4.5271953904196076 2.0303646151138879 9.3669260131918648 104 125 128 2.2122743464978676 46 2350 47 3655
16354 -2.0129276210607832 2.4479459332623059 5.6180093840893557 163 164 169 1.5412336006110883 13 4682 14 2720 45 1921 17 5249 43 1434 42 2191 30 4604
14451 -0.86807597997585162 0.33655663079452736 6.7369289216590307 36 46 47 0.34877211096770683 46 2664 47 3697 48 4672 49 3422 45 4458
15847 1.2664988655491298 2.410789030114155 6.9846559790388536 254 250 238 0.13779833392522647 13 4565 45 1218 43 1036
14452 -0.94525874229602358 0.33489176784751795 6.7249119773878663 39 49 51 0.36512608675525704 46 3626 47 3698 48 4675 45 4462 43 3175
14453 1.1791670885515808 1.6304277201987325 8.8132392206986623 185 159 122 0.28982378672564008 46 3635 47 3702 49 3419
15841 -4.5641608546357402 1.0448519245651944 9.5804939382082068 205 184 157 2.0828282568625411 16 2730 45 1112 43 603 42 1205
14454 -0.86415551635566445 0.35510840360804657 6.6882684648277966 31 47 44 0.32497157831507789 46 2673 47 3707 48 2593 45 2520 49 4307
15336 4.3266703491223266 0.70217004581182529 8.8995501654702007 138 122 107 0.91467714898790087 48 1399 49 1138 50 1117
14457 -0.8928162252372579 0.40505318665246126 6.5670857703555958 185 175 150 0.35266148840954026 46 2681 47 3722 48 5017 49 4378 45 4427 43 3218
16362 -1.6410368819204262 -1.3647046558980571 8.0499153305529774 24 18 13 0.23017872008560525 17 3504 45 3232
14459 -0.9427689375584366 0.44380698761668519 6.4918781653087008 202 190 164 0.43560072377536918 46 2992 47 3729 48 2622 49 3459 45 4190 43 2535
15855 -4.5015728039670355 1.3068543965166135 5.7708169161792044 121 114 108 0.70007436040667681 46 4704 45 1274 43 1399 43 4645
14460 1.118424426212062 1.586685491185321 8.0665910187949894 159 38 34 0.51271134473412894 46 2694 47 3737 48 2626 45 1477 43 1780
15340 1.8542747099033448 -1.4558381345648383 8.3145454399357384 202 183 167 0.23851227562921587 3 2300 49 1189 50 998
14461 1.6430313001557431 1.702899529669299 8.265193251435953 125 68 62 2.0381391018281421 46 4283 47 3738 48 2624 49 1665 45 3572 43 4464
15849 -0.48413320966405299 2.5061980787912113 6.9027476177788767 59 61 58 1.48707326541669 48 2082 49 1533 45 1228
14462 1.8096476691582577 1.8065906966962839 8.3618808618848721 199 172 163 0.38930149837909933 46 2697 47 3739 48 2629 49 3465 50 2925
15121 -0.034556120972154949 2.5724560936329377 6.5618074838122684 46 123 114 0.54192949225614506 47 4949 48 4850 49 3954 50 3258
15638 1.5305741739613399 1.8325364735315204 8.156340816380558 200 181 150 2.6970986334704365 46 87 47 70 48 72 49 69 10 259 11 335 13 236 4 161
14465 -0.63184840992368274 0.59651428527146033 6.429852347507139 118 116 104 0.35843485474325298 46 4953 47 3758 48 2645
16147 -1.9565213425184294 -1.232240984848348 8.4062322380578625 214 202 132 0.18554100060492132 46 4084 45 3243 43 4049 42 2929
14466 -0.36805699826234095 0.60602192712125746 6.4690893372759897 85 83 71 0.80059908485277698 3 5421 47 3760 43 4453 51 3413 56 4259
15125 0.43485590661115237 2.6182603160438407 6.4478858342843379 82 139 128 2.5057352921525733 47 5037 48 4897 49 4045 43 1069 43 3401 46 1292
14468 -0.62665756876580203 0.62876122316056382 6.4406751824690494 185 174 160 0.41660784842218995 46 2713 47 3766 48 5133 45 3569 43 4459
15129 0.64393938359682645 2.4628287497760342 6.1500680586202989 66 80 80 0.12928019188088191 47 3386 48 4949
14472 -0.047877701525504926 1.2861729067549108 6.7876449384579329 162 165 154 0.40260857321448107 10 4291 47 3860 30 3064 26 3433
15644 0.99361356490705632 -1.0681441313333084 8.1024829349346703 220 178 183 3.3228752742091858 46 4225 48 4006 49 3673 46 4211 47 2912 48 3985 50 3593 50 4148
14479 0.39330989970230984 -1.9474038303779007 7.9491004379444101 147 137 135 0.18631521903662049 46 2444 47 3904 48 3599
15201 0.97280170911188946 -0.89064497224165828 7.8767111373028325 149 39 60 0.33269856576553597 46 2248 48 5726 49 5844
14480 -0.53339676104285783 -1.1313932453042213 7.4520755483695842 229 227 223 0.21231965916096712 46 2405 47 3939 45 2500 43 4216
15718 -2.2601197811191778 0.64984138592238183 6.3028462801755847 194 194 180 1.0266097697675483 46 642 45 347 43 360 42 596
14481 2.2755934338075612 1.9352944281659576 8.2590410843897377 200 174 160 1.8502516077629807 46 4353 47 3958 49 4494
16227 -0.54193790455300495 2.3560190449989529 7.0015082395108861 247 222 191 0.36954599436412794 46 2864 45 3988 43 4838
14482 1.1864781330963725 -2.3192196632539979 7.7774660474057242 41 42 47 2.3083563798744056 13 2846 47 3962
17760 -0.79343850242555181 -0.15458985279766438 9.1918621333689128 57 64 72 0.2504699507137928 10 3782 44 3552 11 3911
14483 -3.5202034796659545 -1.9830065641130117 7.6176677313889938 254 212 196 0.047331668692082135 46 3776 47 3995
14484 -0.36511244726574293 -2.0716138519931233 7.6084880093037395 187 159 137 1.7867540503284496 46 4964 48 3569 45 2591 43 3739
15716 -5.0536274036774556 0.58969330409244569 6.8249983508597589 192 163 122 1.1203231459054119 46 629 45 336 43 264
14487 -2.5750073588449887 -1.7767511260971094 8.2806347487584802 50 35 25 0.41795861211120466 46 3855 47 4023
15209 -2.3367870854301813 2.3832017354401929 6.0076179405555452 87 117 108 1.6862044422520301 47 3339 48 5866 45 4305 43 3362
14488 -2.8217115798186172 -1.7832747628744869 8.0677040515724698 223 209 151 3.0827407476740127 46 4945 47 4029
15726 -2.561777344433994 2.3804355158301198 6.9955185012961998 244 222 185 0.36909226792602651 17 623 45 369 14 700 43 278
14489 -3.6992108083370998 -1.6749185382683001 7.5169049649970727 129 127 170 0.77067639722625736 46 1423 47 4061 45 912 43 733
16235 -5.62770051612556 1.4551785017614036 5.2434233254349589 32 20 8 1.5560631923338188 13 4396 45 4033 43 1916 44 5413
15213 1.8041820619829918 -0.019847506470107391 8.6227894457829102 70 71 67 1.3645183469603097 1 2174 4 4941 8 6315 8 6330 48 3452 10 3841 46 1084 50 2708
14492 0.98001259789401951 2.2755746278407067 7.3102555389261923 180 168 152 0.1620632416407585 46 4650 47 4098 49 4852
18287 -5.4073765554744773 2.815691552400915 2.3070920254052201 150 153 158 0.57217014045444026 14 2740 17 2600 41 4582
14494 -3.6309375626881333 -1.5025217286162762 7.2986790350950113 11 38 146 0.52886541637909112 11 4844 47 4126
15724 -4.7602961746894144 1.3858321927585444 5.7937486409045427 15 14 11 0.60179276523773417 46 352 45 366 43 378
15153 3.5841755501602597 1.9916481612992123 7.9613813147868431 229 213 198 0.29674944390471653 47 3851 48 5249 49 2544
14496 0.97983176905564751 -1.3682567806781969 8.4462480348100826 56 52 49 0.47762810925930277 46 1996 47 4154 48 3186 49 3045 50 3971
15670 -3.6035783385338447 1.1352784806028631 6.453890621049851 127 112 83 0.62077840573359944 46 30 45 25 43 24
14497 0.91682092221028733 -1.3535402332428765 8.4250359041922742 96 91 87 0.39775918852499853 46 4075 47 4160 48 3188 49 3049 50 3490
15157 1.2178484149196689 1.7066271412968506 7.4354765503235738 215 198 182 1.3496004288185013 47 2476 48 5269 54 1842
15831 -0.77323986573716452 0.34665207020009281 6.6986459490696122 108 129 135 0.16159078961977461 47 1419 45 1062 43 1195
14500 -0.79371438774030423 -1.3199566523102146 7.7550462642349975 231 228 219 0.56274523522521935 46 2016 47 4190 48 3214 49 3842 45 3313 43 2103
15316 3.558302525383644 2.1275242348995462 6.6084649405850229 30 39 68 2.8348793617218377 48 377 49 861 50 1502
14501 0.97782079337293837 -1.2413925567747002 8.3415385274810312 236 199 181 1.6005316787820183 46 4124 49 3829 47 4195
15320 -1.1097762772790951 -1.8352412927973782 8.019547693958522 221 222 217 0.92288977165859365 3 511 49 902 1 370
15678 -0.88590572326404438 -2.0139271623684301 8.094846121106082 187 147 140 0.47395768837737212 47 39 45 87 43 91
14505 -1.9354492309594142 2.3475312910410713 6.4938527577869758 254 248 235 0.30793298319117374 46 4874 47 4236 48 2930 45 2549 43 2766
16187 -0.58291807491438319 -2.0340466896712908 7.8117241120410688 157 94 103 0.21502439116726824 46 3784 45 3585 43 3747
14506 -0.8059800832963927 -1.1986069067970693 7.5789639375849793 236 244 233 1.8886633013073411 46 4190 47 4253 49 3914 45 3366 43 2228 43 4162
15165 3.2718100176465867 2.110607824172944 7.7238070070913496 236 227 209 0.93791251115578689 47 1295 48 5340 50 5663
15839 -3.1127722711081636 0.46622678720976235 8.8670060724340587 4 5 9 0.55338081541814266 46 1088 45 1108 42 1191
14508 2.1354869724593146 -0.96803647263937065 7.6249607466253204 114 21 36 1.5467245021488711 13 3375 47 4375 48 3374
